-1.8 1.06667 23.85 -0.730835 0.128334 0.670381
-1.8 1.13333 22.45 -0.88575 -0.140371 -0.442428
-1.8 1.13333 22.55 -0.880026 0.0148347 -0.474693
-1.8 1.13333 23.8 -0.769263 0.196364 0.60801
-1.8 1.13333 23.85 -0.717203 0.0504402 0.695037
-1.8 1.2 23.8 -0.80351 0.0960909 0.587484
-1.8 1.4 22.45 -0.579654 0.210868 -0.787106
-1.8 1.4 23.85 -0.909429 -0.093644 0.405177
-1.8 1.4 23.9 -0.871442 -0.0686117 0.485677
-1.8 1.46667 22.45 -0.127835 0.566233 -0.814272
-1.8 1.46667 23.9 -0.871596 0.0152893 0.489986
-1.8 1.53333 22.55 -0.832817 0.208862 -0.512633
-1.8 1.53333 23.8 -0.908204 -0.129304 0.398052
-1.8 1.53333 23.85 -0.902565 -0.0752631 0.423924
-1.8 1.53333 23.9 -0.855711 -0.0222702 0.516974
-1.8 1.66667 23.85 -0.920987 -0.134852 0.36551
-1.8 1.73333 22.6 -0.76375 0.195893 -0.615071
-1.8 1.73333 23.9 -0.866002 -0.216491 0.450747
-1.8 1.8 22.6 -0.67209 0.347181 -0.654035
-1.8 1.8 24 -0.864722 -0.274314 0.420722
-1.8 1.86667 22.65 -0.750738 0.265162 -0.605046
-1.8 1.86667 24 -0.874811 -0.2448 0.418065
-1.8 1.86667 24.05 -0.85057 -0.227741 0.473988
-1.8 2 22.7 -0.786402 0.220861 -0.576881
-1.8 2 24.05 -0.882348 -0.177538 0.435824
-1.8 2.06667 24.05 -0.895343 -0.163959 0.4141
-1.8 2.06667 24.1 -0.836578 -0.181466 0.51692
-1.8 2.13333 24.1 -0.872976 -0.187118 0.450444
-1.8 2.2 24.15 -0.851616 -0.158054 0.49977
-1.8 2.26667 24.15 -0.854171 -0.220299 0.47102
-1.8 2.33333 22.85 -0.734696 0.15987 -0.65929
-1.8 2.33333 24.15 -0.879667 -0.241819 0.409524
-1.8 2.33333 24.2 -0.835567 -0.247031 0.490717
-1.8 2.4 22.85 -0.736708 0.140035 -0.661552
-1.8 2.4 24.2 -0.854965 -0.24088 0.45936
-1.8 2.46667 22.85 -0.706117 0.248726 -0.662974
-1.8 2.46667 24.25 -0.823769 -0.331231 0.460098
-1.8 2.46667 24.3 -0.80088 -0.406119 0.440066
-1.8 2.46667 24.35 -0.826057 -0.406893 0.389958
-1.8 2.6 22.9 -0.683878 0.269854 -0.677856
-1.8 2.66667 22.95 -0.647706 0.33407 -0.684744
-1.8 2.66667 24.5 -0.699548 -0.358825 0.617962
-1.8 2.73333 24.5 -0.705865 -0.23419 0.668513
-1.8 2.8 24.55 -0.721724 -0.254536 0.643682
-1.8 2.93333 23.1 -0.506102 0.393461 -0.767495
-1.8 2.93333 24.55 -0.520106 -0.222232 0.824684
-1.8 3 23.15 -0.47346 0.380004 -0.794627
-1.8 3 24.6 -0.611187 -0.258293 0.748154
-1.8 3.06667 23.15 -0.489599 0.420441 -0.763886
-1.8 3.13333 23.2 -0.448785 0.388673 -0.80469
-1.8 3.26667 23.25 -0.577531 0.347741 -0.738602
-1.8 3.33333 23.3 -0.55886 0.339016 -0.756798
-1.8 3.4 23.3 -0.5718 0.382011 -0.726025
-1.8 3.4 24.7 -0.324959 -0.43206 0.841265
-1.8 3.46667 23.35 -0.558208 0.301167 -0.773112
-1.8 3.46667 24.75 -0.334751 -0.368528 0.867254
-1.8 3.53333 23.4 -0.53763 0.369168 -0.758069
-1.8 3.53333 24.75 -0.256126 -0.430139 0.865667
-1.8 3.6 23.4 -0.475304 0.326337 -0.817062
-1.8 3.6 24.8 -0.240529 -0.395488 0.886417
-1.8 3.66667 24.8 -0.24586 -0.298779 0.922108
-1.8 3.73333 24.85 -0.200491 -0.402842 0.893041
-1.8 3.86667 23.55 -0.427258 0.332738 -0.840676
-1.8 3.93333 23.55 -0.476294 0.369261 -0.797992
-1.8 3.93333 24.95 -0.104897 -0.278851 0.954588
-1.8 4 23.6 -0.411902 0.287825 -0.864577
-1.8 4 24.95 0.0341899 -0.212882 0.97648
-1.8 4.06667 23.6 -0.389483 0.258803 -0.883925
-1.8 4.06667 25 0.1853 -0.230109 0.95536
-1.8 4.13333 23.65 -0.387881 0.346393 -0.854143
-1.8 4.13333 24.95 -0.0271947 0.0198111 0.999434
-1.8 4.13333 25 -0.0416322 -0.217733 0.97512
-1.8 4.2 23.65 -0.240855 0.252861 -0.937043
-1.8 4.46667 23.8 -0.175699 0.330019 -0.927479
-1.8 4.46667 24.95 0.328824 -0.373692 0.867311
-1.8 4.53333 23.8 -0.0979205 0.435596 -0.8948
-1.8 4.53333 25 0.319231 -0.274756 0.906973
-1.8 4.6 23.85 -0.0422094 0.412078 -0.91017
-1.8 4.6 25 0.44588 -0.33034 0.831905
-1.8 4.66667 23.85 -0.00662516 0.372969 -0.92782
-1.8 4.66667 25.05 0.489014 -0.23964 0.838712
-1.8 4.73333 23.9 0.0479749 0.494065 -0.8681
-1.8 4.73333 25.05 0.487613 -0.255684 0.834781
-1.8 4.8 23.9 0.487653 0.343154 -0.80277
-1.8 4.8 25.1 0.596704 -0.255237 0.760788
-1.8 4.86667 25.1 0.584705 -0.211459 0.783202
-1.8 4.93333 24.05 0.433704 0.476035 -0.765043
-1.8 4.93333 25.15 0.763861 -0.165131 0.623897
-1.8 5.06667 24.1 0.596833 0.367134 -0.713444
-1.8 5.06667 25.15 0.636739 -0.14957 0.756434
-1.8 5.13333 24.15 0.610372 0.379273 -0.695412
-1.8 5.13333 25.15 0.611463 -0.124825 0.781365
-1.8 5.2 24.15 0.637112 0.288925 -0.71457
-1.8 5.2 25.15 0.674272 -0.0544494 0.736473
-1.8 5.26667 24.2 0.683932 0.281874 -0.672893
-1.8 5.26667 25.15 0.689429 -0.0428307 0.723086
-1.8 5.26667 25.2 0.828243 -0.0527653 0.55788
-1.8 5.4 24.25 0.728668 0.26102 -0.633176
-1.8 5.46667 24.25 0.74844 0.245227 -0.6162
-1.8 5.46667 25.15 0.757035 0.00592096 0.653347
-1.8 5.53333 24.3 0.793101 0.245728 -0.557323
-1.8 5.53333 25.15 0.766349 -0.0159372 0.642227
-1.8 5.6 24.35 0.857576 0.266782 -0.439763
-1.8 5.6 25.15 0.805372 0.000831328 0.592769
-1.8 5.73333 24.35 0.889797 0.202122 -0.409155
-1.8 5.73333 24.45 0.909961 0.218277 -0.3526
-1.8 5.73333 25.15 0.85146 0.0235702 0.523889
-1.8 5.8 24.5 0.906863 0.201225 -0.370282
-1.8 5.8 25.15 0.875086 0.0398057 0.482327
-1.8 5.86667 24.5 0.90171 0.23454 -0.363194
-1.8 5.86667 24.55 0.918216 0.206136 -0.338212
-1.8 5.86667 25.15 0.887492 0.0630567 0.456489
-1.8 5.93333 24.55 0.92228 0.221406 -0.316826
-1.8 5.93333 25.15 0.892987 0.04294 0.448029
-1.8 6 24.55 0.930703 0.226179 -0.287463
-1.8 6 24.6 0.927669 0.231677 -0.292841
-1.8 6 24.65 0.926188 0.224031 -0.303291
-1.8 6 25.15 0.900198 0.0425768 0.433395
-1.8 6.06667 24.7 0.932263 0.223753 -0.284289
-1.8 6.06667 25.15 0.90592 0.0385438 0.421692
-1.8 6.13333 25.15 0.920939 0.036964 0.387949
-1.8 6.13333 25.2 0.92699 0.0174407 0.374681
-1.8 6.2 24.75 0.927618 0.205184 -0.312128
-1.8 6.2 25.05 0.986206 0.0749552 0.14758
-1.8 6.2 25.1 0.97705 0.0566878 0.205328
-1.8 6.2 25.15 0.928609 0.0382828 0.369078
-1.8 6.26667 24.9 0.985933 0.156671 -0.0582238
-1.8 6.26667 25.05 0.987694 0.0835029 0.132241
-1.8 6.33333 24.85 0.979685 0.172623 -0.10207
-1.8 6.33333 25 0.990369 0.136465 0.0233865
-1.8 6.33333 25.05 0.987517 0.1053 0.117145
-1.8 6.33333 25.1 0.987753 0.107921 0.112683
-1.8 6.33333 25.15 0.945423 0.0788184 0.316169
-1.8 6.4 24.85 0.98946 0.117559 -0.0845492
-1.8 6.4 24.95 0.991183 0.131035 -0.0196387
-1.8 6.4 25 0.991775 0.124762 0.028591
-1.8 6.4 25.05 0.990042 0.0911858 0.107249
-1.8 6.4 25.1 0.991777 0.0950452 0.085703
-1.8 6.4 25.15 0.94617 0.0321431 0.32207
-1.8 6.46667 25 0.995068 0.096067 0.0247328
-1.8 6.46667 25.05 0.992552 0.0853009 0.0869714
-1.8 6.46667 25.1 0.994276 0.0887516 0.0594816
-1.8 7.66667 25.15 0.988922 -0.107157 -0.102713
-1.8 7.66667 25.2 0.986132 -0.121216 -0.113362
-1.8 7.66667 25.25 0.982071 -0.0903055 0.165473
-1.8 7.66667 25.3 0.946707 -0.0282409 0.320857
-1.8 7.73333 25.1 0.984097 -0.101536 -0.145751
-1.8 7.73333 25.15 0.993929 -0.0893513 -0.0642067
-1.8 7.73333 25.2 0.9973 -0.0733252 -0.00411863
-1.8 7.73333 25.25 0.971181 -0.138717 0.193818
-1.8 7.8 25.1 0.979735 -0.161288 -0.118763
-1.8 7.8 25.15 0.990302 -0.136436 -0.0262056
-1.8 7.8 25.2 0.993601 -0.101357 0.0498306
-1.8 7.8 25.25 0.967871 -0.12898 0.215846
-1.8 7.86667 25.05 0.956452 -0.228802 -0.181244
-1.8 7.93333 25 0.949142 -0.269728 -0.162408
-1.8 7.93333 25.25 0.960814 -0.0909555 0.261847
-1.8 8 24.85 0.811679 -0.464774 -0.353784
-1.8 8 25.25 0.959859 -0.0894133 0.265848
-1.8 8.06667 24.75 0.724149 -0.606181 -0.328866
-1.8 8.06667 24.8 0.703091 -0.612572 -0.361136
-1.8 8.06667 25.25 0.953253 -0.0659387 0.29489
-1.8 8.06667 25.3 0.927485 -0.0571389 0.369468
-1.8 8.13333 24.55 0.478621 -0.867159 -0.137685
-1.8 8.13333 24.6 0.604634 -0.765802 -0.219011
-1.8 8.13333 24.7 0.745129 -0.596642 -0.297995
-1.8 8.13333 25.25 0.936125 -0.0275295 0.350587
-1.8 8.13333 25.3 0.924458 -0.0232433 0.380576
-1.8 8.26667 25.3 0.920554 0.10683 0.375723
-1.8 8.33333 24.3 -0.174056 -0.418597 -0.891337
-1.8 8.33333 25.25 0.876669 0.218024 0.428855
-1.8 8.33333 25.3 0.925615 0.222428 0.306209
-1.8 8.4 24.3 -0.0865734 -0.564865 -0.82063
-1.8 8.4 25.2 0.636348 0.456119 0.622107
-1.8 8.46667 24.25 -0.14103 -0.542981 -0.827818
-1.8 8.46667 25.15 0.611861 0.481788 0.6273
-1.8 8.53333 24.2 -0.169842 -0.523531 -0.834907
-1.8 8.53333 25.1 0.583257 0.505321 0.635974
-1.8 8.6 24.15 -0.147401 -0.554837 -0.818797
-1.8 8.6 25.05 0.57206 0.511328 0.64132
-1.8 8.66667 24.1 -0.195419 -0.567566 -0.7998
-1.8 8.66667 25 0.569712 0.524012 0.633119
-1.8 8.73333 24.1 -0.676829 -0.0951579 -0.729964
-1.8 8.73333 24.95 0.513901 0.57279 0.638605
-1.8 8.86667 24.8 0.585545 0.583943 0.56227
-1.8 8.93333 24.05 -0.966347 0.154387 -0.205763
-1.8 8.93333 24.1 -0.765902 0.407827 -0.497063
-1.8 8.93333 24.15 -0.464523 0.633233 -0.619059
-1.8 8.93333 24.7 0.575866 0.631513 0.5192
-1.8 8.93333 24.75 0.553398 0.654647 0.514964
-1.8 9 24.2 -0.353138 0.857884 -0.373267
-1.8 9 24.25 -0.22979 0.884874 -0.405211
-1.8 9 24.3 -0.302935 0.886868 -0.348849
-1.8 9 24.35 -0.357385 0.914192 -0.191124
-1.8 9.06667 24.6 0.353844 0.669882 0.652727
-1.76667 -6.66667 20.35 -0.99027 -0.0136673 -0.138485
-1.76667 -6.6 20.45 -0.980024 -0.184538 -0.0741534
-1.76667 -6.6 20.5 -0.975278 -0.206803 -0.0778729
-1.76667 -6.6 20.55 -0.976349 -0.215662 -0.0152404
-1.76667 -6.6 20.6 -0.976322 -0.204727 0.0698651
-1.76667 -6.53333 20.3 -0.983476 -0.154706 -0.0940226
-1.76667 -6.53333 20.35 -0.978032 -0.156261 -0.137973
-1.76667 -6.53333 20.4 -0.978648 -0.178479 -0.101943
-1.76667 -6.53333 20.7 -0.960902 -0.24633 0.126447
-1.76667 -6.53333 20.75 -0.962534 -0.228942 0.145306
-1.76667 -6.53333 20.8 -0.94715 -0.219669 0.23378
-1.76667 -6.53333 20.85 -0.976797 -0.151197 0.15168
-1.76667 -6.46667 20.8 -0.9424 -0.265159 0.203894
-1.76667 -6.46667 20.85 -0.955951 -0.237398 0.172625
-1.76667 -6.4 20.3 -0.963859 -0.125529 -0.234985
-1.76667 -6.4 20.35 -0.96988 -0.108255 -0.218206
-1.76667 -6.4 20.95 -0.944764 -0.259778 0.19984
-1.76667 -6.33333 20.3 -0.96066 -0.0362997 -0.275345
-1.76667 -6.33333 20.9 -0.964487 -0.145688 0.220318
-1.76667 -6.33333 20.95 -0.965401 -0.137057 0.221849
-1.76667 -6.33333 21 -0.978646 -0.104985 0.176722
-1.76667 -6.26667 20.3 -0.958793 -0.0115026 -0.283871
-1.76667 -6.26667 20.95 -0.966973 -0.0811749 0.241605
-1.76667 -6.26667 21 -0.972103 -0.0812533 0.220031
-1.76667 -6.2 21 -0.964598 -0.0270524 0.262333
-1.76667 -6.13333 20.3 -0.958721 0.0373219 -0.28189
-1.76667 -6.13333 20.95 -0.9674 -0.0109377 0.253015
-1.76667 -6.13333 21 -0.959454 -0.0100327 0.281686
-1.76667 -6.06667 20.3 -0.95491 0.0523758 -0.292238
-1.76667 -6.06667 20.95 -0.965482 0.0100767 0.260275
-1.76667 -6.06667 21 -0.956926 0.0187231 0.289727
-1.76667 -6.06667 21.05 -0.974839 0.022973 0.221724
-1.76667 -6 20.3 -0.952931 0.0891349 -0.289789
-1.76667 -6 20.35 -0.956635 0.056392 -0.285778
-1.76667 -6 21 -0.952359 0.113786 0.282959
-1.76667 -6 21.05 -0.979968 0.115399 0.162313
-1.76667 -5.93333 20.35 -0.966253 0.118438 -0.228753
-1.76667 -5.93333 21 -0.96406 0.0983748 0.246803
-1.76667 -5.86667 20.3 -0.973935 0.15259 -0.167827
-1.76667 -5.86667 20.35 -0.967316 0.159035 -0.197505
-1.76667 -5.86667 20.6 -0.982175 0.187509 0.013138
-1.76667 -5.86667 20.65 -0.983818 0.177425 -0.0249441
-1.76667 -5.86667 20.95 -0.950522 0.170985 0.259368
-1.76667 -5.8 20.35 -0.974524 0.123311 -0.187344
-1.76667 -5.8 20.4 -0.978863 0.174461 -0.106732
-1.76667 -5.8 20.5 -0.975049 0.219118 -0.0355993
-1.76667 -5.8 20.55 -0.973225 0.229406 0.0143516
-1.76667 -5.8 20.6 -0.970903 0.238909 -0.0163997
-1.76667 -5.8 20.7 -0.971448 0.236582 -0.0178072
-1.76667 -5.8 20.75 -0.969657 0.244439 -0.00400843
-1.76667 -5.8 20.85 -0.958131 0.237341 0.160168
-1.76667 -5.73333 20.4 -0.987355 0.152696 -0.0425887
-1.76667 -5.73333 20.45 -0.985151 0.150911 -0.0818712
-1.76667 -5.73333 20.5 -0.980545 0.185116 -0.0653042
-1.76667 -5.73333 20.55 -0.980968 0.194123 -0.00434127
-1.76667 -5.73333 20.7 -0.980463 0.196025 -0.0163246
-1.76667 -5.73333 20.75 -0.980695 0.19541 0.00729946
-1.76667 -5.73333 20.8 -0.97803 0.19235 0.0803653
-1.76667 -5.73333 21.45 -0.920135 -0.209517 -0.33084
-1.76667 -5.73333 21.5 -0.958544 -0.231376 -0.166307
-1.76667 -5.73333 21.55 -0.973779 -0.196213 -0.115131
-1.76667 -5.66667 21.4 -0.981333 -0.185046 -0.0523716
-1.76667 -5.66667 21.45 -0.924289 -0.229702 -0.304841
-1.76667 -5.66667 21.5 -0.93956 -0.280738 -0.195993
-1.76667 -5.66667 21.55 -0.940953 -0.319379 -0.112269
-1.76667 -5.66667 21.65 -0.952137 -0.305103 0.0186444
-1.76667 -5.66667 21.7 -0.971855 -0.235298 -0.0115673
-1.76667 -5.6 21.4 -0.976127 -0.19012 -0.105022
-1.76667 -5.6 21.5 -0.959943 -0.225456 -0.166369
-1.76667 -5.6 21.75 -0.455668 -0.520344 0.722225
-1.76667 -5.53333 21.35 -0.99962 0.0150598 0.0230962
-1.76667 -5.53333 21.4 -0.989063 -0.0260308 -0.145182
-1.76667 -5.53333 21.45 -0.964092 -0.0363671 -0.263067
-1.76667 -5.53333 21.8 -0.515049 -0.57058 0.639659
-1.76667 -5.46667 21.4 -0.979198 0.0941404 -0.179746
-1.76667 -5.46667 21.45 -0.94115 0.0635015 -0.331969
-1.76667 -5.46667 21.85 -0.472701 -0.603674 0.641975
-1.76667 -5.4 21.4 -0.967839 0.16406 -0.190713
-1.76667 -5.4 21.45 -0.922241 0.147425 -0.357404
-1.76667 -5.4 21.5 -0.952772 0.10135 -0.286276
-1.76667 -5.4 21.9 -0.477856 -0.63353 0.608518
-1.76667 -5.4 21.95 -0.570989 -0.616772 0.541815
-1.76667 -5.33333 21.45 -0.927265 0.0819814 -0.365319
-1.76667 -5.33333 21.5 -0.958196 0.0551655 -0.280744
-1.76667 -5.33333 22 -0.421995 -0.661342 0.620118
-1.76667 -5.26667 21.45 -0.930567 0.0254492 -0.365237
-1.76667 -5.26667 22.1 -0.499465 -0.492656 0.712618
-1.76667 -5.2 21.4 -0.985658 -0.155644 -0.0652233
-1.76667 -5.2 22.15 -0.439473 -0.495341 0.749333
-1.76667 -5.13333 22.15 -0.364823 -0.478432 0.798754
-1.76667 -5.06667 21.4 -0.103969 -0.219908 -0.969964
-1.76667 -5.06667 21.45 -0.544085 -0.156275 -0.824348
-1.76667 -5.06667 22.2 -0.326399 -0.322232 0.888611
-1.76667 -4.93333 21.4 -0.612002 -0.0737956 -0.787405
-1.76667 -4.86667 21.4 -0.561859 -0.177185 -0.808034
-1.76667 -4.86667 22.25 -0.365972 -0.295484 0.88247
-1.76667 -4.8 21.4 -0.569251 -0.152373 -0.807921
-1.76667 -4.8 22.3 -0.413069 -0.304095 0.858429
-1.76667 -4.73333 21.4 -0.786139 -0.262921 -0.559338
-1.76667 -4.73333 22.3 -0.273501 -0.180733 0.944739
-1.76667 -4.53333 21.25 -0.707949 -0.527628 -0.469486
-1.76667 -4.53333 22.3 -0.648106 0.25096 0.719012
-1.76667 -4.53333 22.35 -0.991269 0.0916052 0.0948412
-1.76667 -4.46667 21.05 -0.715807 -0.548548 -0.432105
-1.76667 -4.46667 21.1 -0.583707 -0.639804 -0.499937
-1.76667 -4.46667 21.15 -0.563176 -0.695907 -0.445586
-1.76667 -4.46667 22.25 -0.569745 0.276989 0.773736
-1.76667 -4.4 21.05 -0.527544 -0.598098 -0.603305
-1.76667 -4.4 22.2 -0.923846 -0.0165335 0.382409
-1.76667 -4.33333 22.25 -0.776149 -0.072147 0.626409
-1.76667 -4.26667 22.25 -0.648517 -0.216952 0.729629
-1.76667 -4.2 22.3 -0.64964 -0.276159 0.708311
-1.76667 -4.13333 20.75 0.278187 -0.800471 -0.530903
-1.76667 -4.13333 20.8 0.144841 -0.829708 -0.539079
-1.76667 -4.13333 20.85 0.220743 -0.903782 -0.366676
-1.76667 -4.13333 22.3 -0.652286 -0.330622 0.682065
-1.76667 -4.06667 20.7 0.189218 -0.839596 -0.50919
-1.76667 -4.06667 22.35 -0.669388 -0.316521 0.672112
-1.76667 -4 20.55 0.193051 -0.678932 -0.708366
-1.76667 -4 22.35 -0.671476 -0.301776 0.676794
-1.76667 -3.93333 20.5 0.174774 -0.672153 -0.719489
-1.76667 -3.93333 22.4 -0.654809 -0.29814 0.694506
-1.76667 -3.93333 22.45 -0.768505 -0.358288 0.530123
-1.76667 -3.86667 20.45 0.185989 -0.612666 -0.768146
-1.76667 -3.86667 22.45 -0.694054 -0.323962 0.642913
-1.76667 -3.8 20.4 0.172345 -0.541833 -0.822626
-1.76667 -3.73333 20.35 0.289171 -0.462586 -0.838089
-1.76667 -3.6 20.3 0.354093 -0.304264 -0.884331
-1.76667 -3.6 22.55 -0.665655 -0.262851 0.698436
-1.76667 -3.53333 20.3 0.256149 -0.222845 -0.9406
-1.76667 -3.53333 22.55 -0.778396 -0.250764 0.575514
-1.76667 -3.46667 20.3 0.226481 -0.116245 -0.967054
-1.76667 -3.46667 22.6 -0.694268 -0.240249 0.678434
-1.76667 -3.4 22.6 -0.729872 -0.249925 0.636257
-1.76667 -3.26667 22.65 -0.705344 -0.210875 0.676773
-1.76667 -3.2 22.7 -0.748184 -0.200436 0.632493
-1.76667 -3.13333 22.7 -0.702277 -0.180265 0.688703
-1.76667 -3.06667 20.2 0.247354 -0.231519 -0.940859
-1.76667 -3.06667 22.7 -0.736664 -0.149099 0.659618
-1.76667 -2.93333 20.15 0.229107 -0.195948 -0.953475
-1.76667 -2.86667 20.15 0.694262 -0.107084 -0.711711
-1.76667 -2.86667 22.8 -0.804248 -0.102756 0.585343
-1.76667 -2.8 20.1 0.805431 0.0927542 -0.585387
-1.76667 -2.8 22.8 -0.758212 -0.0875255 0.646107
-1.76667 -2.73333 20.1 0.858916 0.0925942 -0.503677
-1.76667 -2.73333 22.8 -0.717867 -0.028425 0.695599
-1.76667 -2.66667 20.1 0.868527 0.0643641 -0.491445
-1.76667 -2.66667 20.35 0.558073 0.829746 0.00876443
-1.76667 -2.66667 20.4 0.19869 0.964248 0.175353
-1.76667 -2.66667 20.45 0.177102 0.978509 0.105621
-1.76667 -2.66667 20.5 0.121733 0.989998 0.0713181
-1.76667 -2.66667 20.55 0.067393 0.997244 0.0310168
-1.76667 -2.66667 20.6 -0.118578 0.97477 -0.189108
-1.76667 -2.66667 20.65 -0.303019 0.893909 -0.330312
-1.76667 -2.66667 20.7 -0.494357 0.790242 -0.362118
-1.76667 -2.66667 22.8 -0.747242 -0.0186954 0.664289
-1.76667 -2.6 20.1 0.834816 -0.0134261 -0.550366
-1.76667 -2.6 20.25 0.927348 0.312133 -0.206394
-1.76667 -2.6 20.3 0.816099 0.569318 0.0992996
-1.76667 -2.6 20.75 -0.299052 0.846342 -0.440764
-1.76667 -2.6 20.8 -0.382773 0.827999 -0.409759
-1.76667 -2.6 22.8 -0.848773 0.0635678 0.524922
-1.76667 -2.53333 20.15 0.933868 -0.00358921 -0.357601
-1.76667 -2.53333 20.85 -0.483121 0.745027 -0.459923
-1.76667 -2.53333 22.8 -0.872983 0.0547073 0.484674
-1.76667 -2.4 21.05 -0.493234 0.628144 -0.601793
-1.76667 -2.4 21.1 -0.5748 0.662997 -0.479625
-1.76667 -2.33333 22.8 -0.909254 0.0859127 0.407278
-1.76667 -2.26667 21.25 -0.684558 0.510663 -0.520195
-1.76667 -2.2 21.3 -0.787401 0.445225 -0.42635
-1.76667 -2.2 21.35 -0.755649 0.488693 -0.43609
-1.76667 -2.2 22.7 -0.770925 0.137185 0.621976
-1.76667 -2.06667 21.45 -0.871824 0.373242 -0.317194
-1.76667 -2.06667 21.5 -0.862826 0.414544 -0.289281
-1.76667 -2.06667 21.55 -0.892725 0.316373 -0.320859
-1.76667 -2.06667 22.7 -0.778317 0.178016 0.602107
-1.76667 -2 21.6 -0.820435 0.406293 -0.402259
-1.76667 -2 22.65 -0.758024 0.189363 0.624132
-1.76667 -2 22.7 -0.815031 0.158722 0.557254
-1.76667 -1.93333 22.65 -0.759585 0.178626 0.625398
-1.76667 -1.86667 22.6 -0.865524 0.159113 0.474922
-1.76667 -1.8 22.6 -0.767228 0.216026 0.6039
-1.76667 -1.73333 21.8 -0.92169 0.184502 -0.341242
-1.76667 -1.73333 22.6 -0.732672 0.264839 0.626939
-1.76667 -1.66667 21.8 -0.919842 0.222603 -0.323016
-1.76667 -1.66667 21.85 -0.932014 0.16453 -0.322923
-1.76667 -1.66667 22.55 -0.775277 0.304876 0.55317
-1.76667 -1.66667 22.6 -0.933542 0.120782 0.337506
-1.76667 -1.6 21.8 -0.964487 0.159695 -0.210387
-1.76667 -1.6 21.85 -0.933761 0.193206 -0.301268
-1.76667 -1.6 21.9 -0.952835 0.138468 -0.270058
-1.76667 -1.53333 21.85 -0.952783 0.178041 -0.245979
-1.76667 -1.53333 21.9 -0.916772 0.207328 -0.341385
-1.76667 -1.53333 22.45 -0.75529 0.474547 0.452042
-1.76667 -1.46667 21.9 -0.932949 0.154206 -0.325311
-1.76667 -1.46667 21.95 -0.952757 0.215931 -0.213605
-1.76667 -1.46667 22 -0.958455 0.248013 -0.140906
-1.76667 -1.46667 22.1 -0.938968 0.34323 -0.0230677
-1.76667 -1.46667 22.15 -0.905228 0.424319 -0.0227061
-1.76667 -1.46667 22.2 -0.898962 0.437946 -0.00839645
-1.76667 -1.46667 22.25 -0.890386 0.454025 0.0327826
-1.76667 -1.46667 22.35 -0.869579 0.484751 0.0940705
-1.76667 -1.46667 22.4 -0.913271 0.355773 0.198396
-1.76667 -1.4 21.95 -0.970365 0.13114 -0.202964
-1.76667 -1.4 22.2 -0.947539 0.306164 0.0918343
-1.76667 -1.4 22.25 -0.957038 0.284986 0.053494
-1.76667 -1.4 22.3 -0.962048 0.257321 0.0908291
-1.76667 -0.933333 22.85 -0.992295 0.0364732 0.118409
-1.76667 -0.866667 22.45 -0.983823 -0.0538579 -0.170857
-1.76667 -0.866667 22.5 -0.981707 -0.118324 -0.149165
-1.76667 -0.866667 22.55 -0.98097 -0.167955 -0.0974095
-1.76667 -0.866667 22.6 -0.980437 -0.192632 -0.0404612
-1.76667 -0.866667 22.65 -0.979225 -0.197086 0.0476983
-1.76667 -0.866667 22.7 -0.986703 -0.153301 0.0539906
-1.76667 -0.866667 22.75 -0.988767 -0.102976 0.108329
-1.76667 -0.866667 22.8 -0.987851 -0.0631155 0.142011
-1.76667 -0.866667 22.85 -0.991487 -0.0252209 0.127737
-1.76667 -0.8 22.4 -0.965924 -0.0749111 -0.247747
-1.76667 -0.8 22.45 -0.963294 -0.132922 -0.233229
-1.76667 -0.8 22.6 -0.975944 -0.215153 -0.0352467
-1.76667 -0.8 22.7 -0.983699 -0.17149 0.054112
-1.76667 -0.8 22.8 -0.983076 -0.11948 0.138874
-1.76667 -0.8 22.85 -0.986883 -0.101694 0.125383
-1.76667 -0.733333 22.45 -0.966742 -0.110123 -0.230831
-1.76667 -0.733333 22.75 -0.988488 -0.101117 0.11255
-1.76667 -0.733333 22.8 -0.982506 -0.117608 0.144398
-1.76667 -0.733333 22.85 -0.98053 -0.13063 0.146621
-1.76667 -0.666667 22.45 -0.966626 -0.0948019 -0.238008
-1.76667 -0.666667 22.8 -0.984255 -0.0580581 0.166946
-1.76667 -0.666667 22.85 -0.979585 -0.107838 0.169662
-1.76667 -0.6 22.4 -0.922162 -0.138105 -0.36131
-1.76667 -0.6 22.9 -0.944322 -0.251426 0.21223
-1.76667 -0.6 23 -0.929414 -0.315273 0.191814
-1.76667 -0.466667 22.3 -0.782081 -0.295105 -0.548874
-1.76667 -0.466667 23.3 -0.859115 -0.502662 0.0961921
-1.76667 -0.466667 23.35 -0.855822 -0.496969 0.143494
-1.76667 -0.466667 23.4 -0.867287 -0.474464 0.150658
-1.76667 -0.466667 23.5 -0.922785 -0.321964 0.211677
-1.76667 -0.466667 23.55 -0.947747 -0.222607 0.22852
-1.76667 -0.4 22.25 -0.863054 -0.18896 -0.468437
-1.76667 -0.4 23.55 -0.895483 -0.367739 0.250755
-1.76667 -0.4 23.65 -0.959591 -0.180451 0.215922
-1.76667 -0.333333 22.25 -0.877962 -0.160327 -0.451085
-1.76667 -0.333333 23.6 -0.903258 -0.336484 0.266277
-1.76667 -0.333333 23.65 -0.891978 -0.328977 0.310079
-1.76667 -0.333333 23.75 -0.971073 -0.0865407 0.222548
-1.76667 -0.266667 22.2 -0.96555 -0.0930482 -0.243015
-1.76667 -0.266667 23.75 -0.887105 -0.274647 0.370964
-1.76667 -0.2 22.15 -0.990854 -0.103818 -0.0861935
-1.76667 -0.2 22.2 -0.955685 -0.0861634 -0.2815
-1.76667 -0.2 22.25 -0.902495 -0.047372 -0.428087
-1.76667 -0.2 23.75 -0.862895 -0.29537 0.410083
-1.76667 -0.2 23.8 -0.880315 -0.274576 0.386851
-1.76667 -0.133333 22.2 -0.957335 -0.0186965 -0.288377
-1.76667 -0.133333 22.25 -0.904942 0.027352 -0.424655
-1.76667 -0.133333 23.8 -0.857412 -0.243541 0.453357
-1.76667 -0.0666667 22.25 -0.92969 0.027643 -0.367305
-1.76667 -0.0666667 22.3 -0.969578 0.0498864 -0.239647
-1.76667 -0.0666667 23.85 -0.821295 -0.272268 0.501343
-1.76667 0 22.3 -0.967095 -0.0382792 -0.251519
-1.76667 0 23.85 -0.849135 -0.241945 0.469502
-1.76667 0.0666667 23.9 -0.809311 -0.241285 0.535534
-1.76667 0.133333 22.2 -0.928349 -0.0997686 -0.358071
-1.76667 0.2 22.2 -0.93697 -0.0245908 -0.348543
-1.76667 0.2 24 -0.951904 -0.00988129 0.306236
-1.76667 0.266667 22.15 -0.981742 0.0244978 -0.188636
-1.76667 0.266667 22.2 -0.951865 0.0360759 -0.304387
-1.76667 0.266667 24 -0.894544 0.00150845 0.446977
-1.76667 0.333333 22.2 -0.961327 0.0874376 -0.26116
-1.76667 0.4 22.2 -0.963186 0.153594 -0.220639
-1.76667 0.466667 22.15 -0.988758 0.146689 0.0289669
-1.76667 0.466667 22.2 -0.973159 0.161883 -0.16357
-1.76667 0.466667 22.25 -0.948003 0.180405 -0.262193
-1.76667 0.466667 22.3 -0.953994 0.165969 -0.2497
-1.76667 0.466667 22.35 -0.97068 0.161072 -0.178425
-1.76667 0.466667 24 -0.877268 -0.0288333 0.479133
-1.76667 0.533333 22.2 -0.987006 0.153014 -0.0490587
-1.76667 0.533333 22.3 -0.948114 0.174057 -0.266051
-1.76667 0.533333 22.35 -0.964327 0.152693 -0.216236
-1.76667 0.6 22.35 -0.957767 0.129766 -0.256598
-1.76667 0.6 22.4 -0.974982 0.107211 -0.194719
-1.76667 0.666667 22.4 -0.959435 0.0826322 -0.269547
-1.76667 0.733333 22.4 -0.951807 0.0860488 -0.294377
-1.76667 0.8 22.35 -0.951002 0.118232 -0.285684
-1.76667 0.8 22.4 -0.937892 0.11377 -0.327743
-1.76667 0.866667 22.4 -0.935644 0.10646 -0.336507
-1.76667 0.866667 22.45 -0.958973 0.0713611 -0.274367
-1.76667 0.933333 22.45 -0.949183 0.0346463 -0.312812
-1.76667 0.933333 22.5 -0.956313 -0.000655644 -0.292343
-1.76667 0.933333 23.9 -0.717092 0.153336 0.679903
-1.76667 1 22.5 -0.954345 0.0184922 -0.298132
-1.76667 1 23.9 -0.744314 0.146733 0.65151
-1.76667 1.06667 22.45 -0.948903 -0.0168729 -0.315115
-1.76667 1.06667 23.85 -0.691603 0.162902 0.703668
-1.76667 1.13333 22.4 -0.906737 -0.068009 -0.416176
-1.76667 1.13333 23.85 -0.749761 0.117212 0.651245
-1.76667 1.2 22.4 -0.870991 -0.0357137 -0.489999
-1.76667 1.2 22.45 -0.895502 -0.00102043 -0.445057
-1.76667 1.2 23.85 -0.84647 0.0303802 0.531569
-1.76667 1.26667 23.85 -0.92234 -0.0670191 0.380522
-1.76667 1.33333 23.9 -0.905136 -0.0880721 0.415898
-1.76667 1.4 22.4 -0.553701 0.276931 -0.785318
-1.76667 1.46667 22.45 -0.362732 0.470016 -0.80468
-1.76667 1.46667 24 -0.970626 0.00491569 0.240542
-1.76667 1.53333 22.5 -0.662837 0.307522 -0.682698
-1.76667 1.6 23.9 -0.949795 -0.0447453 0.309656
-1.76667 1.66667 23.9 -0.969666 -0.0676574 0.234885
-1.76667 1.8 22.6 -0.67169 0.265156 -0.691754
-1.76667 1.8 24 -0.887182 -0.249845 0.387924
-1.76667 1.8 24.05 -0.884359 -0.236379 0.402535
-1.76667 1.86667 22.6 -0.677065 0.342516 -0.651357
-1.76667 1.86667 24.1 -0.890288 -0.184265 0.416453
-1.76667 1.93333 24.05 -0.913968 -0.171964 0.367548
-1.76667 2 22.65 -0.629844 0.303333 -0.715043
-1.76667 2.06667 22.7 -0.605625 0.309285 -0.733185
-1.76667 2.06667 24.15 -0.860616 -0.177679 0.477253
-1.76667 2.13333 22.75 -0.640658 0.356947 -0.679814
-1.76667 2.13333 24.15 -0.874255 -0.196484 0.443928
-1.76667 2.13333 24.2 -0.878051 -0.154832 0.452829
-1.76667 2.2 24.2 -0.856561 -0.161294 0.490191
-1.76667 2.26667 24.2 -0.862548 -0.218812 0.456216
-1.76667 2.33333 24.25 -0.844888 -0.238021 0.479072
-1.76667 2.4 22.85 -0.631791 0.176653 -0.754741
-1.76667 2.4 24.25 -0.852292 -0.213742 0.477403
-1.76667 2.46667 22.85 -0.553245 0.263702 -0.790178
-1.76667 2.46667 24.3 -0.823589 -0.290537 0.487123
-1.76667 2.46667 24.35 -0.80122 -0.384868 0.458173
-1.76667 2.6 22.9 -0.502775 0.324926 -0.801024
-1.76667 2.66667 22.9 -0.409973 0.388488 -0.825227
-1.76667 2.66667 24.5 -0.48373 -0.407234 0.774703
-1.76667 2.73333 22.95 -0.387298 0.489835 -0.781065
-1.76667 2.73333 24.55 -0.514822 -0.224512 0.827377
-1.76667 2.8 23 -0.408359 0.459684 -0.788628
-1.76667 2.8 24.55 -0.42113 -0.243964 0.873574
-1.76667 2.86667 24.6 -0.545426 -0.356919 0.758366
-1.76667 2.93333 23.1 -0.451628 0.402479 -0.796268
-1.76667 2.93333 24.6 -0.416086 -0.306875 0.855979
-1.76667 3 23.1 -0.434848 0.471679 -0.76709
-1.76667 3.06667 23.15 -0.41387 0.415345 -0.810062
-1.76667 3.13333 23.2 -0.431663 0.401946 -0.807532
-1.76667 3.26667 23.25 -0.445904 0.36493 -0.81731
-1.76667 3.33333 23.25 -0.433825 0.378584 -0.8176
-1.76667 3.4 23.3 -0.386764 0.395198 -0.833206
-1.76667 3.4 24.7 -0.225223 -0.446635 0.865905
-1.76667 3.46667 23.35 -0.453265 0.373785 -0.809219
-1.76667 3.46667 24.75 -0.222446 -0.389481 0.893768
-1.76667 3.53333 23.35 -0.344796 0.385004 -0.856089
-1.76667 3.53333 24.8 -0.115769 -0.371872 0.921037
-1.76667 3.6 23.4 -0.386379 0.405122 -0.828605
-1.76667 3.6 24.8 -0.229258 -0.382366 0.895119
-1.76667 3.66667 23.4 -0.344645 0.383227 -0.856946
-1.76667 3.66667 24.85 -0.241222 -0.457165 0.856044
-1.76667 3.86667 23.55 -0.449075 0.298558 -0.842137
-1.76667 3.93333 23.55 -0.419016 0.354154 -0.836062
-1.76667 3.93333 24.95 -0.0656258 -0.237999 0.969046
-1.76667 4 23.6 -0.344181 0.289699 -0.893092
-1.76667 4 24.95 0.0064478 -0.197682 0.980245
-1.76667 4.06667 23.6 -0.354068 0.315577 -0.880367
-1.76667 4.06667 24.95 0.0658704 -0.121686 0.990381
-1.76667 4.13333 23.65 -0.370163 0.401291 -0.837822
-1.76667 4.13333 25 0.317311 -0.258265 0.912476
-1.76667 4.2 23.65 -0.270383 0.312712 -0.910552
-1.76667 4.2 24.95 -0.0229505 0.0760949 0.996836
-1.76667 4.46667 23.8 -0.106664 0.317943 -0.942091
-1.76667 4.53333 23.8 0.0159635 0.425908 -0.904626
-1.76667 4.53333 25 0.492082 -0.159515 0.85581
-1.76667 4.6 23.85 -0.00676983 0.410065 -0.912031
-1.76667 4.6 25 0.567467 -0.221369 0.793081
-1.76667 4.66667 23.85 0.0798946 0.383874 -0.919923
-1.76667 4.66667 25 0.615279 -0.211651 0.759365
-1.76667 4.73333 23.9 0.159856 0.521547 -0.838114
-1.76667 4.73333 25.05 0.684818 -0.157316 0.711531
-1.76667 4.8 23.95 0.229226 0.548288 -0.804261
-1.76667 4.8 25.05 0.688918 -0.183095 0.701333
-1.76667 4.86667 25.05 0.721406 -0.153191 0.675356
-1.76667 4.86667 25.1 0.81415 -0.144676 0.562342
-1.76667 4.93333 24.05 0.407872 0.515739 -0.753428
-1.76667 4.93333 25.1 0.790639 -0.118249 0.600756
-1.76667 5.06667 24.1 0.657564 0.40668 -0.634209
-1.76667 5.06667 24.15 0.595659 0.377035 -0.709249
-1.76667 5.06667 25.1 0.794605 -0.0973321 0.599274
-1.76667 5.13333 24.2 0.631368 0.419001 -0.652543
-1.76667 5.13333 25.1 0.802783 -0.0483534 0.594307
-1.76667 5.2 24.2 0.693962 0.294133 -0.657193
-1.76667 5.2 25.15 0.829604 -0.0262814 0.557733
-1.76667 5.26667 24.2 0.742361 0.268886 -0.613677
-1.76667 5.26667 25.1 0.814716 -0.0173216 0.579601
-1.76667 5.4 24.25 0.777253 0.258486 -0.57364
-1.76667 5.4 25.1 0.827934 0.0231784 0.560347
-1.76667 5.4 25.15 0.81297 0.0178541 0.582031
-1.76667 5.46667 24.3 0.826368 0.246515 -0.506306
-1.76667 5.46667 24.35 0.850941 0.33252 -0.406607
-1.76667 5.46667 25.15 0.813323 -0.0192927 0.581492
-1.76667 5.53333 24.35 0.882386 0.248852 -0.399335
-1.76667 5.53333 25.1 0.840496 0.00238851 0.541813
-1.76667 5.6 24.5 0.950167 0.19531 -0.242974
-1.76667 5.6 25.1 0.875557 0.0358757 0.48178
-1.76667 5.73333 24.5 0.954763 0.162951 -0.248747
-1.76667 5.73333 24.55 0.949367 0.169168 -0.264735
-1.76667 5.73333 25.15 0.913462 0.0689445 0.401041
-1.76667 5.8 24.55 0.952595 0.183772 -0.242467
-1.76667 5.8 25.1 0.930614 0.0830607 0.356453
-1.76667 5.86667 24.6 0.950179 0.199392 -0.239587
-1.76667 5.86667 25.1 0.941092 0.106901 0.320809
-1.76667 5.93333 24.6 0.96461 0.138353 -0.224467
-1.76667 5.93333 24.7 0.96106 0.172119 -0.216189
-1.76667 5.93333 24.95 0.996472 0.0679701 0.0492231
-1.76667 5.93333 25 0.988964 0.0623463 0.134396
-1.76667 5.93333 25.05 0.955468 0.0466054 0.291392
-1.76667 5.93333 25.1 0.951986 0.0601591 0.300171
-1.76667 5.93333 25.15 0.96396 0.0510643 0.261102
-1.76667 6 24.75 0.967546 0.163005 -0.19309
-1.76667 6 24.95 0.99275 0.0995231 0.0674054
-1.76667 6 25 0.986597 0.0834056 0.140247
-1.76667 6 25.05 0.956448 0.0537619 0.286911
-1.76667 6 25.1 0.961807 0.0533903 0.26847
-1.76667 6.06667 24.75 0.961175 0.169081 -0.21807
-1.76667 6.06667 24.8 0.984713 0.149388 -0.0895712
-1.76667 6.06667 24.85 0.989099 0.142924 -0.035432
-1.76667 6.06667 24.95 0.990511 0.117133 0.071884
-1.76667 6.06667 25 0.986622 0.0919445 0.134623
-1.76667 6.06667 25.05 0.960328 0.0684811 0.270333
-1.76667 6.06667 25.1 0.972742 0.0195698 0.231065
-1.76667 6.13333 24.75 0.965063 0.161733 -0.206146
-1.76667 6.13333 24.8 0.985623 0.144139 -0.0881514
-1.76667 6.13333 24.85 0.988862 0.140807 -0.0482172
-1.76667 6.13333 24.95 0.991265 0.119224 0.0563938
-1.76667 6.13333 25 0.989847 0.0764819 0.119802
-1.76667 6.13333 25.05 0.967526 0.0388205 0.249772
-1.76667 6.13333 25.1 0.978897 0.00273781 0.204336
-1.76667 6.2 24.8 0.986672 0.134532 -0.0915379
-1.76667 6.2 24.85 0.986827 0.14288 -0.0758792
-1.76667 6.2 24.95 0.991177 0.129419 0.0286091
-1.76667 6.2 25 0.991019 0.0856935 0.102653
-1.76667 7.93333 25.15 0.976193 -0.113637 0.184755
-1.76667 7.93333 25.2 0.988985 -0.115993 0.0919499
-1.76667 8 25 0.971667 -0.229463 -0.0566477
-1.76667 8 25.05 0.982909 -0.182257 0.0259428
-1.76667 8 25.1 0.980533 -0.152174 0.124089
-1.76667 8 25.15 0.969867 -0.159683 0.184012
-1.76667 8 25.2 0.974594 -0.164831 0.15165
-1.76667 8.06667 24.8 0.690391 -0.602564 -0.400346
-1.76667 8.06667 24.85 0.725045 -0.591428 -0.352878
-1.76667 8.06667 24.9 0.893225 -0.386297 -0.230049
-1.76667 8.06667 25.1 0.974176 -0.171777 0.146542
-1.76667 8.06667 25.15 0.955789 -0.175564 0.235891
-1.76667 8.06667 25.2 0.948397 -0.159571 0.274007
-1.76667 8.13333 24.7 0.665509 -0.689723 -0.285272
-1.76667 8.13333 24.75 0.733936 -0.602052 -0.314437
-1.76667 8.13333 25.15 0.954723 -0.102545 0.279266
-1.76667 8.13333 25.2 0.930329 -0.0827372 0.357272
-1.76667 8.2 24.55 0.634067 -0.73351 -0.24479
-1.76667 8.26667 25.25 0.979266 0.0127177 0.202179
-1.76667 8.33333 24.3 -0.143677 -0.440177 -0.886341
-1.76667 8.33333 25.2 0.886518 0.160372 0.434013
-1.76667 8.33333 25.25 0.988515 0.0672328 0.135344
-1.76667 8.4 24.3 -0.0905508 -0.581309 -0.808629
-1.76667 8.4 25.15 0.77055 0.335248 0.542089
-1.76667 8.46667 24.25 -0.126158 -0.559156 -0.819407
-1.76667 8.46667 25.1 0.728657 0.376637 0.572017
-1.76667 8.53333 24.2 -0.142206 -0.534238 -0.833287
-1.76667 8.53333 25.05 0.689389 0.428475 0.584082
-1.76667 8.6 24.15 -0.146026 -0.543817 -0.826402
-1.76667 8.6 25.05 0.672635 0.410604 0.615603
-1.76667 8.66667 24.1 -0.0992769 -0.574734 -0.812296
-1.76667 8.66667 24.95 0.597085 0.54894 0.584939
-1.76667 8.66667 25 0.653469 0.442109 0.614425
-1.76667 8.73333 24.05 -0.985263 -0.00847043 -0.170838
-1.76667 8.86667 24.75 0.564902 0.592163 0.574656
-1.76667 8.93333 24.05 -0.993337 0.0196175 -0.113564
-1.76667 8.93333 24.1 -0.440513 0.547512 -0.711463
-1.76667 8.93333 24.15 -0.232834 0.690652 -0.684681
-1.76667 8.93333 24.7 0.590139 0.603519 0.536191
-1.76667 9 24.2 -0.117077 0.912101 -0.392893
-1.76667 9 24.25 -0.127659 0.897381 -0.422387
-1.76667 9 24.3 -0.198671 0.908867 -0.36673
-1.76667 9 24.6 0.563258 0.63077 0.533732
-1.76667 9.06667 24.35 0.163208 0.851856 -0.497699
-1.76667 9.06667 24.4 0.627781 0.746903 -0.219152
-1.76667 9.06667 24.55 0.637389 0.56403 0.524981
-1.73333 -6.66667 20.3 -0.953512 -0.299831 -0.0302735
-1.73333 -6.66667 20.35 -0.94469 -0.319218 -0.0752409
-1.73333 -6.66667 20.4 -0.932072 -0.359162 -0.0473832
-1.73333 -6.66667 20.45 -0.926332 -0.375076 -0.0350351
-1.73333 -6.66667 20.55 -0.925803 -0.377429 -0.0208612
-1.73333 -6.66667 20.6 -0.928375 -0.36534 0.0681628
-1.73333 -6.6 20.25 -0.968037 -0.158158 -0.194652
-1.73333 -6.6 20.3 -0.950396 -0.198956 -0.239091
-1.73333 -6.6 20.35 -0.945483 -0.253787 -0.204094
-1.73333 -6.6 20.4 -0.941303 -0.319293 -0.109547
-1.73333 -6.6 20.5 -0.933568 -0.358213 0.0115661
-1.73333 -6.6 20.7 -0.908063 -0.3794 0.177419
-1.73333 -6.53333 20.25 -0.951504 -0.139889 -0.273991
-1.73333 -6.53333 20.75 -0.910266 -0.370273 0.185239
-1.73333 -6.53333 20.8 -0.900679 -0.374804 0.21977
-1.73333 -6.53333 20.85 -0.909218 -0.349628 0.226017
-1.73333 -6.46667 20.95 -0.912239 -0.318866 0.257185
-1.73333 -6.46667 21 -0.929671 -0.317392 0.187014
-1.73333 -6.4 21 -0.90478 -0.313722 0.288013
-1.73333 -6.4 21.05 -0.875798 -0.262058 0.405345
-1.73333 -6.4 21.1 -0.946233 -0.270714 0.177079
-1.73333 -6.33333 21.05 -0.894287 -0.177865 0.410628
-1.73333 -6.33333 21.1 -0.942404 -0.206919 0.262792
-1.73333 -6.26667 21.05 -0.90236 -0.0791069 0.423662
-1.73333 -6.26667 21.1 -0.94327 -0.0793461 0.322406
-1.73333 -6.13333 21.1 -0.899736 0.0136163 0.436222
-1.73333 -6.06667 20.15 -0.925016 0.169155 -0.340194
-1.73333 -6.06667 21.1 -0.898965 0.0550509 0.434547
-1.73333 -6 20.25 -0.908359 0.0851624 -0.409429
-1.73333 -6 21.05 -0.868581 0.121768 0.480355
-1.73333 -5.93333 20.3 -0.912503 0.103793 -0.395683
-1.73333 -5.93333 21.05 -0.877911 0.0747742 0.47295
-1.73333 -5.86667 21 -0.943737 0.199847 0.263478
-1.73333 -5.8 20.3 -0.942292 0.165299 -0.29114
-1.73333 -5.8 20.95 -0.927353 0.232898 0.292873
-1.73333 -5.73333 20.3 -0.948213 0.287557 -0.134915
-1.73333 -5.73333 20.35 -0.935728 0.308061 -0.17179
-1.73333 -5.73333 20.45 -0.937517 0.342363 -0.0620468
-1.73333 -5.73333 20.5 -0.930646 0.365898 -0.0041191
-1.73333 -5.73333 20.6 -0.929464 0.368866 -0.00594399
-1.73333 -5.73333 20.85 -0.934698 0.30387 0.184399
-1.73333 -5.73333 21.45 -0.895544 -0.396377 -0.202202
-1.73333 -5.73333 21.5 -0.881022 -0.470929 -0.0450018
-1.73333 -5.73333 21.55 -0.872537 -0.488054 0.0219863
-1.73333 -5.73333 21.65 -0.863119 -0.477826 0.163421
-1.73333 -5.66667 20.3 -0.945037 0.322635 0.0530209
-1.73333 -5.66667 20.35 -0.940248 0.340254 -0.012711
-1.73333 -5.66667 20.4 -0.927187 0.37455 0.00604628
-1.73333 -5.66667 20.55 -0.92608 0.374751 -0.0440098
-1.73333 -5.66667 20.7 -0.935786 0.352301 -0.0137122
-1.73333 -5.66667 20.75 -0.936247 0.350106 -0.0294542
-1.73333 -5.66667 20.8 -0.938553 0.336957 0.0746912
-1.73333 -5.66667 21.35 -0.942197 -0.322537 -0.090748
-1.73333 -5.66667 21.4 -0.933492 -0.327725 -0.145567
-1.73333 -5.66667 21.7 -0.818249 -0.518004 0.249281
-1.73333 -5.53333 21.25 -0.979679 0.0810967 -0.183444
-1.73333 -5.53333 21.3 -0.983273 0.0911968 -0.157663
-1.73333 -5.46667 21.3 -0.968936 0.196944 -0.149584
-1.73333 -5.46667 21.35 -0.957273 0.193218 -0.215164
-1.73333 -5.46667 21.9 -0.518598 -0.576333 0.631583
-1.73333 -5.4 21.3 -0.970339 0.156289 -0.184435
-1.73333 -5.4 21.35 -0.944044 0.190711 -0.269091
-1.73333 -5.4 21.95 -0.381886 -0.685166 0.62025
-1.73333 -5.33333 21.35 -0.970459 0.0511454 -0.235783
-1.73333 -5.33333 21.4 -0.968731 0.140059 -0.204801
-1.73333 -5.33333 22 -0.328804 -0.693005 0.641585
-1.73333 -5.26667 21.4 -0.989586 0.0283794 -0.141115
-1.73333 -5.26667 22.1 -0.35244 -0.571187 0.741304
-1.73333 -5.2 21.4 -0.990508 -0.108487 -0.0844073
-1.73333 -5.2 22.15 -0.293123 -0.569094 0.768252
-1.73333 -5.13333 21.4 -0.957058 -0.231838 -0.174042
-1.73333 -5.13333 21.45 0.801573 0.126493 -0.584362
-1.73333 -5.13333 22.2 -0.336129 -0.405375 0.85011
-1.73333 -5.06667 21.5 0.98978 -0.0310491 -0.139179
-1.73333 -5.06667 22.2 -0.342387 -0.341253 0.875396
-1.73333 -4.86667 21.35 -0.729983 -0.144384 -0.66804
-1.73333 -4.86667 22.25 -0.368637 -0.282688 0.885547
-1.73333 -4.8 21.4 -0.689773 -0.238064 -0.683768
-1.73333 -4.8 22.3 -0.314418 -0.26259 0.912243
-1.73333 -4.73333 21.35 -0.618883 -0.377083 -0.689051
-1.73333 -4.73333 22.3 -0.303738 -0.156636 0.939792
-1.73333 -4.6 22.35 -0.787733 0.16079 0.594663
-1.73333 -4.53333 21.2 -0.643957 -0.608397 -0.463866
-1.73333 -4.53333 22.3 -0.499748 0.222159 0.837196
-1.73333 -4.53333 22.35 -0.850121 0.136014 0.508719
-1.73333 -4.46667 21.05 -0.539107 -0.642953 -0.544036
-1.73333 -4.46667 21.1 -0.506201 -0.676109 -0.535385
-1.73333 -4.46667 22.25 -0.497584 0.308017 0.810886
-1.73333 -4.4 21 -0.46525 -0.646609 -0.604516
-1.73333 -4.4 22.25 -0.721934 0.0478719 0.690304
-1.73333 -4.2 22.3 -0.650011 -0.293449 0.70098
-1.73333 -4.13333 20.75 0.151603 -0.799422 -0.581327
-1.73333 -4.13333 20.8 0.108942 -0.825829 -0.553297
-1.73333 -4.13333 20.85 0.206168 -0.902496 -0.378148
-1.73333 -4.13333 22.35 -0.667856 -0.301988 0.680272
-1.73333 -4.06667 22.4 -0.718084 -0.306859 0.624654
-1.73333 -4 20.55 0.161357 -0.671305 -0.723404
-1.73333 -4 20.6 0.156308 -0.770839 -0.617555
-1.73333 -4 20.65 0.155908 -0.794566 -0.586819
-1.73333 -4 22.4 -0.674269 -0.314118 0.668349
-1.73333 -3.93333 20.5 0.193583 -0.675551 -0.711446
-1.73333 -3.93333 22.45 -0.690915 -0.328523 0.643979
-1.73333 -3.86667 20.45 0.218072 -0.618017 -0.755314
-1.73333 -3.8 20.4 0.20266 -0.532276 -0.821955
-1.73333 -3.66667 20.35 0.299518 -0.341766 -0.890777
-1.73333 -3.66667 22.55 -0.696035 -0.255872 0.670869
-1.73333 -3.6 20.3 0.504621 -0.281117 -0.816291
-1.73333 -3.6 22.6 -0.67773 -0.243895 0.693684
-1.73333 -3.53333 20.3 0.401202 -0.187066 -0.896684
-1.73333 -3.53333 22.6 -0.709731 -0.245224 0.660414
-1.73333 -3.46667 20.3 0.341199 -0.154978 -0.927127
-1.73333 -3.46667 22.65 -0.724097 -0.240158 0.646535
-1.73333 -3.26667 22.7 -0.702255 -0.214153 0.678953
-1.73333 -3.06667 20.2 0.307236 -0.183828 -0.933709
-1.73333 -2.93333 20.15 0.159918 -0.157231 -0.974528
-1.73333 -2.93333 22.8 -0.688329 -0.196721 0.698215
-1.73333 -2.86667 20.15 0.653771 -0.062846 -0.754079
-1.73333 -2.86667 22.8 -0.72589 -0.186315 0.662095
-1.73333 -2.8 20.15 0.574748 0.174972 -0.799406
-1.73333 -2.8 22.85 -0.675905 -0.102917 0.729768
-1.73333 -2.73333 20.15 0.656391 0.163998 -0.73638
-1.73333 -2.73333 22.85 -0.685928 -0.0363678 0.72676
-1.73333 -2.66667 20.15 0.732067 0.173895 -0.658664
-1.73333 -2.66667 20.3 0.943011 0.332727 -0.00491461
-1.73333 -2.66667 20.35 0.372494 0.927155 0.0404064
-1.73333 -2.66667 20.4 0.222123 0.963563 0.149021
-1.73333 -2.66667 20.45 0.181403 0.979659 0.0857958
-1.73333 -2.66667 20.5 0.128057 0.990092 0.0576039
-1.73333 -2.66667 20.55 0.0260781 0.999617 -0.00925664
-1.73333 -2.66667 20.6 -0.0963927 0.969014 -0.22742
-1.73333 -2.66667 22.85 -0.702173 -0.0488233 0.71033
-1.73333 -2.6 20.1 0.587894 -0.198667 -0.784164
-1.73333 -2.6 20.15 0.806723 0.104104 -0.581688
-1.73333 -2.6 20.25 0.888351 0.37057 -0.271129
-1.73333 -2.6 20.75 -0.243623 0.858157 -0.451901
-1.73333 -2.6 22.85 -0.725711 0.0732494 0.684089
-1.73333 -2.53333 20.8 -0.441941 0.701179 -0.559497
-1.73333 -2.53333 22.8 -0.796776 0.0613241 0.601156
-1.73333 -2.4 21.05 -0.456126 0.680448 -0.573532
-1.73333 -2.4 21.1 -0.55503 0.664722 -0.500086
-1.73333 -2.4 22.8 -0.763023 0.107953 0.637293
-1.73333 -2.33333 22.8 -0.7729 0.116751 0.623695
-1.73333 -2.26667 21.25 -0.678955 0.500067 -0.537544
-1.73333 -2.2 21.3 -0.742035 0.455036 -0.492266
-1.73333 -2.2 22.8 -0.795895 0.151632 0.586139
-1.73333 -2.06667 21.4 -0.806174 0.443957 -0.391135
-1.73333 -2.06667 21.45 -0.816171 0.465938 -0.341711
-1.73333 -2.06667 22.7 -0.735476 0.139931 0.662944
-1.73333 -2 21.5 -0.822543 0.447472 -0.350986
-1.73333 -2 21.55 -0.798452 0.461549 -0.386584
-1.73333 -2 22.7 -0.727636 0.177781 0.662526
-1.73333 -1.93333 21.55 -0.827196 0.355488 -0.435173
-1.73333 -1.93333 22.7 -0.740854 0.194149 0.642995
-1.73333 -1.86667 22.65 -0.693585 0.20488 0.690626
-1.73333 -1.86667 22.7 -0.783665 0.179387 0.594718
-1.73333 -1.73333 21.75 -0.806769 0.243599 -0.538316
-1.73333 -1.73333 22.65 -0.742583 0.216929 0.63365
-1.73333 -1.66667 21.75 -0.851613 0.262288 -0.453828
-1.73333 -1.66667 22.6 -0.788798 0.234428 0.568191
-1.73333 -1.6 21.75 -0.908427 0.227893 -0.350466
-1.73333 -1.6 22.55 -0.806441 0.327523 0.492322
-1.73333 -1.53333 21.8 -0.897423 0.218754 -0.383117
-1.73333 -1.53333 22.55 -0.803305 0.329418 0.49617
-1.73333 -1.46667 21.85 -0.891848 0.262527 -0.368357
-1.73333 -1.46667 22.4 -0.841492 0.4604 0.282705
-1.73333 -1.46667 22.45 -0.871121 0.359713 0.334297
-1.73333 -1.4 21.85 -0.905718 0.200359 -0.373538
-1.73333 -1.4 21.9 -0.887387 0.266507 -0.376188
-1.73333 -1.4 22 -0.920464 0.370878 -0.123272
-1.73333 -1.4 22.1 -0.902876 0.429785 -0.00996998
-1.73333 -1.4 22.15 -0.890115 0.455041 -0.0251811
-1.73333 -1.4 22.2 -0.884006 0.467465 -0.00327413
-1.73333 -1.4 22.25 -0.882714 0.468747 0.033031
-1.73333 -1.4 22.3 -0.886353 0.450854 0.105396
-1.73333 -1.4 22.35 -0.889917 0.441443 0.114784
-1.73333 -1.33333 21.9 -0.865932 0.176021 -0.468165
-1.73333 -1.33333 21.95 -0.924125 0.257547 -0.282247
-1.73333 -1.06667 22.95 -0.984197 0.0125941 0.176629
-1.73333 -1 22.65 -0.975281 -0.220963 -0.00182994
-1.73333 -1 22.7 -0.975988 -0.217819 0.00153674
-1.73333 -1 22.85 -0.991083 -0.111171 0.0734555
-1.73333 -1 22.9 -0.983755 -0.0663201 0.166818
-1.73333 -1 22.95 -0.983611 -0.0061422 0.1802
-1.73333 -0.933333 22.45 -0.952883 -0.18713 -0.238738
-1.73333 -0.933333 22.55 -0.95697 -0.274732 -0.0934402
-1.73333 -0.933333 22.6 -0.954137 -0.298538 -0.0222937
-1.73333 -0.933333 22.65 -0.952187 -0.302977 0.0392956
-1.73333 -0.933333 22.7 -0.95943 -0.280254 0.03086
-1.73333 -0.933333 22.8 -0.981144 -0.171804 0.0885409
-1.73333 -0.933333 22.9 -0.979477 -0.0560924 0.193593
-1.73333 -0.933333 22.95 -0.981585 -0.0134382 0.190555
-1.73333 -0.866667 22.4 -0.927542 -0.121941 -0.353266
-1.73333 -0.866667 22.9 -0.972477 -0.0361265 0.23018
-1.73333 -0.866667 22.95 -0.98078 -0.0215288 0.193927
-1.73333 -0.8 22.35 -0.885766 -0.108678 -0.45123
-1.73333 -0.8 22.9 -0.972882 -0.0573393 0.224082
-1.73333 -0.8 22.95 -0.978707 -0.0565657 0.197313
-1.73333 -0.733333 22.35 -0.874972 -0.0986518 -0.474017
-1.73333 -0.733333 22.4 -0.910572 -0.116757 -0.396519
-1.73333 -0.733333 22.9 -0.969027 -0.0591083 0.239776
-1.73333 -0.733333 22.95 -0.967744 -0.0841522 0.237466
-1.73333 -0.666667 22.35 -0.854567 -0.111868 -0.507149
-1.73333 -0.666667 22.4 -0.903175 -0.115641 -0.413402
-1.73333 -0.666667 22.9 -0.977322 0.00638586 0.211663
-1.73333 -0.666667 22.95 -0.966782 -0.0502895 0.250605
-1.73333 -0.533333 22.35 -0.867822 -0.211461 -0.449633
-1.73333 -0.533333 23.3 -0.867042 -0.47272 0.157396
-1.73333 -0.466667 22.3 -0.788128 -0.281053 -0.547598
-1.73333 -0.466667 23.5 -0.838362 -0.490542 0.237737
-1.73333 -0.466667 23.55 -0.856945 -0.453484 0.244944
-1.73333 -0.466667 23.6 -0.870404 -0.379369 0.313809
-1.73333 -0.4 22.25 -0.776633 -0.268276 -0.569973
-1.73333 -0.4 23.6 -0.82402 -0.466622 0.321332
-1.73333 -0.4 23.65 -0.857527 -0.381618 0.344986
-1.73333 -0.333333 22.2 -0.853751 -0.214454 -0.474467
-1.73333 -0.333333 23.75 -0.832125 -0.296513 0.468666
-1.73333 -0.266667 22.15 -0.89544 -0.179249 -0.407502
-1.73333 -0.266667 23.8 -0.781779 -0.326258 0.531392
-1.73333 -0.2 22.15 -0.890208 -0.120948 -0.439206
-1.73333 -0.2 23.8 -0.774398 -0.316529 0.54783
-1.73333 -0.133333 22.15 -0.894961 -0.0214884 -0.445627
-1.73333 -0.133333 23.85 -0.752049 -0.288411 0.592656
-1.73333 -0.0666667 22.15 -0.899002 0.0273281 -0.437092
-1.73333 -0.0666667 22.2 -0.894802 0.0516026 -0.443471
-1.73333 -0.0666667 23.9 -0.781161 -0.300645 0.547175
-1.73333 0.0666667 22.2 -0.850283 -0.0887641 -0.518787
-1.73333 0.133333 22.15 -0.876745 -0.103931 -0.469591
-1.73333 0.133333 24 -0.761967 -0.2364 0.602927
-1.73333 0.2 22.15 -0.874596 -0.0651501 -0.480456
-1.73333 0.2 24 -0.799265 -0.106601 0.591449
-1.73333 0.266667 22.15 -0.873459 -0.00773005 -0.486837
-1.73333 0.266667 24 -0.794624 -0.0471488 0.605269
-1.73333 0.4 22.15 -0.902248 0.144258 -0.406372
-1.73333 0.4 24 -0.789163 0.0178514 0.613924
-1.73333 0.466667 22.15 -0.934112 0.210874 -0.288039
-1.73333 0.466667 24.05 -0.819517 -0.00698412 0.573012
-1.73333 0.533333 22.15 -0.951476 0.246658 -0.18399
-1.73333 0.533333 22.2 -0.928199 0.23987 -0.284443
-1.73333 0.533333 22.25 -0.912556 0.23514 -0.334591
-1.73333 0.533333 24 -0.78084 0.0467761 0.622978
-1.73333 0.6 22.25 -0.931425 0.180125 -0.316232
-1.73333 0.6 22.3 -0.915292 0.203158 -0.347802
-1.73333 0.6 24 -0.768509 0.0571488 0.637281
-1.73333 0.733333 22.3 -0.917527 0.117112 -0.380039
-1.73333 0.733333 22.35 -0.924722 0.128251 -0.358387
-1.73333 0.733333 24 -0.741005 0.1512 0.654256
-1.73333 0.8 22.35 -0.913417 0.108773 -0.39222
-1.73333 0.8 24 -0.732857 0.186023 0.654459
-1.73333 0.866667 22.3 -0.919913 0.155754 -0.359862
-1.73333 0.866667 22.35 -0.896391 0.113924 -0.428374
-1.73333 0.933333 22.3 -0.924097 0.0938684 -0.370451
-1.73333 0.933333 22.35 -0.887446 0.0888236 -0.452272
-1.73333 0.933333 22.4 -0.90657 0.0745059 -0.415427
-1.73333 1 22.35 -0.880982 0.0657003 -0.468567
-1.73333 1 22.4 -0.898262 0.0627679 -0.434955
-1.73333 1 22.45 -0.962111 0.063606 -0.265137
-1.73333 1 23.9 -0.713218 0.140201 0.686778
-1.73333 1.06667 22.4 -0.892902 0.0591355 -0.446351
-1.73333 1.06667 23.9 -0.765251 0.0719259 0.639702
-1.73333 1.13333 22.4 -0.866334 0.0514793 -0.496805
-1.73333 1.13333 23.9 -0.78353 0.0284284 0.620703
-1.73333 1.2 22.35 -0.828557 0.00956064 -0.559823
-1.73333 1.2 23.9 -0.799619 -0.0208295 0.600146
-1.73333 1.33333 22.35 -0.754873 0.21817 -0.618521
-1.73333 1.4 22.4 -0.556555 0.256446 -0.790242
-1.73333 1.4 24 -0.884826 -0.0994059 0.455194
-1.73333 1.46667 22.45 -0.528652 0.396818 -0.750375
-1.73333 1.46667 24 -0.881107 -0.00794161 0.47285
-1.73333 1.53333 22.45 -0.504829 0.31268 -0.804598
-1.73333 1.53333 24 -0.867075 -0.00993949 0.498079
-1.73333 1.66667 24 -0.881598 -0.171438 0.439766
-1.73333 1.73333 24 -0.850738 -0.246373 0.464268
-1.73333 1.8 24.05 -0.85044 -0.276757 0.44739
-1.73333 1.8 24.1 -0.830032 -0.24943 0.498831
-1.73333 1.8 24.15 -0.886968 -0.167138 0.430525
-1.73333 1.86667 22.6 -0.562281 0.305555 -0.768425
-1.73333 1.86667 24.1 -0.841878 -0.242142 0.482296
-1.73333 2 22.65 -0.543475 0.327541 -0.772885
-1.73333 2 24.2 -0.830012 -0.185531 0.525983
-1.73333 2.06667 22.65 -0.450891 0.341859 -0.824518
-1.73333 2.06667 24.2 -0.820087 -0.19484 0.538047
-1.73333 2.13333 22.7 -0.502372 0.355801 -0.788054
-1.73333 2.13333 24.25 -0.83324 -0.154884 0.530775
-1.73333 2.2 24.25 -0.820453 -0.178523 0.543126
-1.73333 2.26667 24.25 -0.807699 -0.241107 0.538042
-1.73333 2.26667 24.3 -0.844724 -0.203788 0.494886
-1.73333 2.33333 24.3 -0.814276 -0.229503 0.533182
-1.73333 2.4 24.3 -0.800735 -0.206397 0.562339
-1.73333 2.46667 24.35 -0.724938 -0.399095 0.561416
-1.73333 2.6 22.85 -0.664599 0.397399 -0.632758
-1.73333 2.6 24.5 -0.432165 -0.358681 0.827394
-1.73333 2.66667 22.9 -0.456246 0.401797 -0.793977
-1.73333 2.66667 24.55 -0.300993 -0.246807 0.921135
